# 3D point list with one line of data per point:
#   POINT3D_ID, X, Y, Z, R, G, B, ERROR, TRACK[] as (IMAGE_ID, POINT2D_IDX)
# Number of points: 350, mean track length: 4.5068178449681344
6406 0.015451707620193683 2.3459198826252132 2.0798011364217159 37 28 29 0.61944601046170511 82 1211 34 1072 68 1953
6408 -1.0607296406046418 1.8051751330604608 2.884197411139251 51 28 19 0.10762022409118004 82 1193 34 1148 5 1140 78 1190 54 1221 4 411
6409 -0.2698610493400434 2.4179162536981837 2.0218625821607623 35 24 26 0.26903663685610341 82 1287 34 1163 5 1208 78 414 54 399 43 1200
6410 -1.0288571833367655 1.8572927170440805 2.8270562985543943 141 96 71 0.082821742320965175 82 1195 34 1166 68 1162
6412 -1.3163911252214435 1.8758470453985292 2.7362984986249703 108 73 60 0.40173440358183399 82 1246 34 1222 78 1228 54 558 68 1685 88 2226 44 1007 92 281
6413 -0.85570050366046368 1.9345109330253978 1.6649718354561014 160 174 202 0.10432780284776873 82 1353 34 1233 5 1241 78 482 54 480 88 634 68 336
6414 -1.4985782542560728 1.942384212993576 2.6618666031862483 35 23 20 0.13804280872748836 82 1308 34 1257 78 1274 43 1520
6415 -1.1064309148985561 1.9696013644325869 1.5465134947159171 195 158 51 0.32731170000123805 82 1411 34 1288 78 545 5 578 54 1284
6416 -1.5975502330047373 1.998385892880824 2.6227945600892868 38 31 36 0.37742432199602971 82 1337 34 1290 5 1279 78 1310 54 1408 59 1123 21 458
6417 -1.6242952162946624 2.0046285679677642 2.6130443999189277 28 18 17 0.14849487940329612 82 1339 34 1291 78 1332
6418 -1.675169514746818 1.7837332525524268 1.8521386365351877 183 147 43 0.32120086980876722 82 659 34 1353 5 1368 78 1375 54 1448 59 1110
6419 -1.0210372988080865 2.6309921870356607 1.6249515753039563 44 35 37 0.2676150643262411 82 1473 34 1371 78 1363 54 624 43 644
6420 -1.8099933576543041 2.0783060917549023 2.4826164885744877 92 65 54 0.49952758707167988 82 1400 34 1373 5 1384 78 1408 54 744 4 685 4 1307 43 1593 88 1392 68 927
6421 -1.5767406625243319 1.9418602958817257 1.7300394182743928 223 182 49 0.39634460648665099 64 1319 82 713 34 1383 78 1402 59 1129 54 712 65 413
6422 -1.0458485762604854 2.6881514534909101 1.5422865900830827 56 46 45 0.29928259031986554 82 1495 34 1401 5 1465 78 1390 54 1379 59 1169 4 1213 21 1695
6423 -1.0458485762604854 2.6881514534909101 1.5422865900830827 56 46 45 0.29928259031986548 82 1494 34 1402 5 1466 78 1391 54 1380 4 1214 59 1170 21 1696
6424 -1.6892811937221948 1.9748526862388291 1.8880748241596181 57 61 74 1.2752509465116608 64 615 34 1413 5 1989
6425 -1.9027374514310915 2.1686712381161883 2.4227626035586374 96 99 91 0.14053395448495445 53 562 34 1420 54 1509
6426 -1.2081510857122908 2.7161361244721798 1.5476816766044925 41 35 39 0.5681499044876045 64 2187 34 1435 78 1987 54 1457 4 1858 59 1747 21 1712 47 1918 65 1748 1 1403 37 1414 62 1576 74 1546
6427 -2.0114994779616318 2.1109972380637649 2.3986975637604684 150 101 77 0.26690234553908782 82 2034 34 1437 5 2010 53 2002 59 1769
6428 -1.8494201147030491 2.2949673598983527 2.2354194721375058 85 91 87 0.32391797901038727 82 1463 34 1442 78 1454 54 1529 4 739 43 910
6429 -2.0288768263849133 2.2059279292759775 2.3573034080725179 99 100 94 0.12135576273182536 82 1458 34 1451 78 1467 4 1344
6430 -2.0288768263849133 2.2059279292759775 2.3573034080725179 99 100 94 0.12135576273182536 82 1459 34 1452 78 1468 4 1345
6431 -1.65027385864731 2.487588654412848 1.8814887519573122 116 115 105 0.30830538421390125 64 2150 34 1458 5 2053 78 2012 54 1517
6432 -1.3410160579302273 2.7404963632769967 1.5618856953150502 90 98 97 0.74985071449330376 64 1506 82 1519 34 1463 5 1506 78 756 54 763 4 1286 43 1526 59 1208 21 1213
6433 -1.4043773934825752 2.7606856712678809 1.5308914505604898 95 104 102 0.39281630096832765 82 1528 34 1472 78 799
6434 -2.0927805776729174 2.2214573695239439 2.3215078867938144 102 104 96 0.13112308817753834 82 1475 34 1474 5 1480 78 1488 54 1555 59 1785 11 922
6435 -1.9301569830365515 2.4657803266913905 2.2231507265847514 196 187 158 1.3533021175129527 64 1415 34 1482 78 1496
6436 -0.10770138854869891 0.86333705102305691 1.9120645525367623 144 126 40 0.38749139863853715 82 61 34 1531 5 846
6437 -0.53382030243947887 1.0373776390177947 2.0131618498412172 175 188 219 0.21579964698834142 82 1612 34 1595 5 891 32 1865 11 1803
6438 0.41451646274485676 2.2292602146052287 2.3682542723387021 104 71 59 0.35009225940109623 82 1678 34 1636 54 1682 59 1428
6439 -0.44502233417140591 1.4688373959549004 2.3090382406462271 113 68 12 0.35150215829264653 82 1671 34 1643 78 1639 54 1717 4 1545 43 1777 88 1068
6440 -0.42066422298053435 1.4864990700567169 2.2936988567836232 111 67 9 0.71460979246206968 82 1674 34 1644 5 991 78 1640 54 1718 43 1760
6441 -0.33782670458207342 1.56452368563027 2.1779325171370285 90 55 8 0.56515548081572708 82 1684 34 1646 54 1027 43 1749 88 1654 68 1862 32 1176 11 1105
6444 -1.3529680940510367 1.9367101370075348 2.7293307590834579 36 23 21 0.92164977183863872 53 1854 34 1811 54 1981 43 2060 32 1635 11 1595
6446 -1.4800300267756985 1.3786628840494859 1.5769630345625729 148 122 40 0.14789582904898604 82 1958 34 1837 5 2406 78 1841 78 2340 54 1968 4 1709 59 2077
6447 -1.4053734298248992 1.4491058029975594 1.4725828946046222 151 119 40 0.18397680539166972 82 1980 34 1853 54 1969
6448 -1.3689546447941681 1.4830830515460449 1.419322512894329 155 126 42 0.14120558177443238 82 1985 34 1857 78 1845 54 1971
6449 -1.6037764217480019 2.015300383361744 2.4157641397390384 214 198 163 1.2728477409129508 82 1373 5 1335
6450 -1.6040365324464489 2.1500010395601352 2.5525403999065452 214 198 163 0.42412844158963747 82 1372 34 1897
6452 -1.2408264855428681 2.3046498988198749 1.5288336815553916 7 10 15 0.61224467065582366 82 2061 34 1935
6453 -1.0210875198441924 2.6926959619298465 1.5425185015062359 107 74 58 0.35668656854962871 82 2550 34 1938 88 1917
6454 -1.8979311726603101 2.2398177423953856 2.2915588992723288 216 203 170 0.28972826017979048 82 2037 34 1972 5 2023 78 1453 54 2122 4 1910 43 1607 59 1771 68 916 21 1705
6455 -1.6812243907016398 2.4233316673528611 2.0254899040520353 75 69 55 0.49693064932805536 82 2069 34 1973 54 2116
6456 -1.6812243907016398 2.4233316673528611 2.0254899040520353 75 69 55 0.49693064932805536 82 2070 34 1974 54 2117
6457 -1.2666873702939081 2.733898211219592 1.5767743204579447 71 78 78 0.75249192371116602 53 2201 34 1977 5 2056 78 2000 54 2083 4 1269 43 2090 59 1760 88 1947 21 1721 65 1197
6458 -1.8620620497610207 2.4298417706069562 2.0058384021956446 93 88 77 0.71423306848213231 82 1507 34 1988 5 2059 64 1432 78 1501 54 2125 4 1918 59 1801 21 1746
6461 -0.073287805964087974 0.98213680408440407 1.6923771638235725 187 197 223 0.32347193227639637 82 2156 34 2047 5 1562 78 2074 54 2167 4 1396
6463 0.76834169365715643 2.1472914084384196 2.4914717369984762 41 28 25 0.28119992229885626 82 2204 34 2081 5 2167 78 1534 53 2424 59 1359 88 2025 21 1320
6464 0.70248040322861571 2.1460208394252986 2.4888442742148604 102 68 55 0.34835821404305939 82 2202 34 2106 5 2187 78 2108 54 2630
6465 -0.19256100019338337 1.556996406221153 3.3531059558617113 65 39 27 0.10785732229087801 82 2152 34 2109 78 2154 54 2280 4 2064 43 2333 59 1898
6466 -0.19238007567008755 1.5572633219719301 3.3537087927652052 65 39 27 0.10899183151445153 82 2151 34 2110 78 2153 54 2279 43 2332 59 1899
6467 -0.21633236280194815 1.6173494288463783 3.2814976953201183 44 28 21 0.15393281490854349 82 2160 34 2122 78 2167
6468 -0.57827514944817826 1.0156029893808791 2.0462659075071175 75 90 117 0.97770004154335322 82 2671 34 2125 5 2573 78 2140 54 1667 4 1425 32 1894 11 1173
6469 0.41688200048073359 2.210189744819179 2.3838197310514224 40 27 23 0.31979809765334405 82 2294 34 2162 5 2251 78 2163 54 2257 43 2242 21 1426
6470 0.41661915478386535 2.2097251689815685 2.3831125744606205 40 27 23 0.29660699890328812 82 2295 34 2163 5 2252 78 2164 54 2258 43 2243 59 1931 21 1427 59 1427
6471 -0.56856643459556999 1.6755409531049879 3.1630518541371542 42 27 21 0.52783507288995646 82 2263 34 2191 5 2237 78 2229 54 2347 4 2159 43 2425 78 1669 59 1986
6472 -0.56734992715746946 1.6761759222933317 3.1624650419632476 42 27 21 0.45686083914668307 82 2264 34 2192 78 2230 4 2160 43 2426 78 1670
6473 -0.77849810924684482 1.2767429774222709 2.1995387393910635 241 212 147 0.96305928943778907 82 1697 34 2203 59 1398
6474 -0.63141436328619494 1.7278084335679647 3.096217037706924 47 34 27 0.68492649084785817 82 2282 34 2210 78 2249 54 2362 4 2170 43 2439 59 2016 88 2514 68 2241 32 2531 11 2491 76 2932 25 2900
6475 0.13719702025314751 2.3162196544645237 2.1584708087485289 37 26 23 0.15198020827149775 82 2356 34 2227 78 2228 54 2316 4 2114 43 2306 59 2012
6477 -0.81978072322849749 1.939060960375772 1.6714112911673542 4 6 9 1.5951312370524355 82 2453 34 2295 88 2248 68 2529 21 1948
6478 -1.3616113527547662 1.4232137008469763 1.5117345626148582 179 142 42 0.35137424425043629 82 2488 34 2321 5 2397 64 2421 78 2704 54 2837 43 2547 59 2420 21 2331
6479 -1.3262706751369038 1.5439092137897581 1.3366188541774746 255 228 70 0.34943381200072549 53 1593 34 2342 43 2052 5 1878
6481 -0.82499770240883064 3.8417782651269246 3.733514573586969 152 127 42 0.45572744626629047 82 2464 34 2356
6482 -1.1608280182552577 1.9761443559450358 1.5167184411963965 105 78 30 0.10786097981517033 82 2511 34 2357 5 2442 78 2363 59 2126 21 1577
6483 -1.7891328396645023 1.9967967941253866 2.5781143879888235 0 0 0 0.9822850590447928 53 2427 34 2376 21 1648
6485 -1.1175661829564063 2.7397382537870736 1.5081200618977768 121 85 66 0.67832216367680764 82 2854 34 2426 5 2532 78 2425 54 2514 4 2340 59 2237 88 1939 88 2290
6489 0.64637701193274566 2.1730736408238442 2.5083238897996276 223 204 167 0.13813389740655363 82 2668 34 2545 5 2596 78 2534 54 2631
6490 -0.18487982344943688 1.6048135580767051 3.3027088598745902 121 93 84 0.78817390415251731 64 2267 82 2633 34 2546 54 2689 4 2065 59 1913
6491 -0.45063880866791434 1.6723387077148537 3.1578242163244576 107 77 67 0.33992052108845489 53 2716 34 2578 78 2219 54 2726 4 2139 43 2748 59 1967 88 2497 32 2831 11 2758 92 2250 76 3203 25 3183 45 3133 86 2668 47 2153
6492 0.29409266263278888 2.2331535646726159 2.397656111970381 222 202 165 0.19446231590955523 82 2719 34 2588 5 2632
6493 0.2449324028821154 2.2931684285907092 2.1921754902110044 102 70 60 0.74035033775021486 53 3070 34 2603 78 2591 5 2646 54 2702 4 2481 43 2946 59 2358 88 2669 68 2949 21 2638
6494 -0.81405604692730693 1.3051037620215458 2.181000135043988 244 207 66 0.81059882964402541 82 2730 34 2614 78 2235 43 3050 59 828
6496 -1.0932155434807558 1.437969343207093 1.4982882426295996 168 138 40 0.22989818404783011 82 2791 34 2671 5 2714 78 2657 54 2780
6497 0.43380091457027503 5.5611709699199476 5.7285641928773545 162 129 40 0.58631840879958064 53 1945 34 2679
6499 -1.2411636810110356 1.4567113751516481 1.4656380638895203 255 214 67 0.12260111804895964 82 2804 34 2694 78 2692
6500 -1.3981193800634488 1.9599007742717947 2.6777893064391383 105 72 59 0.37208096211255814 82 2765 34 2698 78 2728 54 2853 4 2663 43 2835 88 2575 68 2503 32 2883 11 2782 44 2200 92 2115 86 2219 84 1189
6501 -1.3986787232285747 1.4600365792189383 1.4564508448389886 255 226 70 0.4338652256719619 64 2886 34 2718 5 2760 78 2721 54 2845 4 2621 43 2838 59 2427 32 2827 11 2656 47 2134
6502 -1.3291007129138015 1.573240512817583 1.322960505864895 23 11 2 1.1462238413918802 53 2891 34 2729 78 2351 43 2833
6503 -1.7041725627611495 2.3969187060245636 2.0260222513389743 121 119 106 0.42129556639045695 64 3033 34 2776 5 3126 54 2927
6504 -1.7596501724132776 2.4053022637148476 2.0319173680491378 126 125 113 0.64879546086596995 82 2851 34 2777 78 2803 4 2733 54 2572 59 2824 78 3055
6505 -1.7600506953112247 2.4036179974543548 2.0300694345400974 126 125 113 0.47238191489077658 82 2852 34 2778 78 2804 4 2734 59 2823
6506 -1.3618915684335529 2.7307483209246257 1.5700645987348214 128 130 123 0.19347276338987074 82 2861 34 2780 5 2860 78 2798 54 2913
6507 -0.31832249945592656 0.66596344305701694 2.2239795427562568 132 108 30 0.68315922258210826 82 2614 34 2802 5 2552 78 2821 54 2948 4 2751
6508 -0.12368226809854348 0.85871519560650611 1.9752433813960075 122 100 25 0.29222376745130785 82 2896 34 2807 78 2827 5 3175
6509 -0.051451914765147946 1.3903208626005337 1.832347577504339 235 218 177 1.2453563589757179 53 3179 34 2852
6510 -0.42471334397048321 1.498186721864645 2.2174061561734701 127 93 21 0.40676425616946793 82 2710 34 2880 5 2218 78 2578 54 2710 43 2996
6511 -0.36839951612890803 1.5170950282590676 2.1856308379640805 151 116 28 0.32146320595760719 82 2957 34 2881 5 2964 78 2896 54 3032 4 2804 68 3066 88 2872
6512 -0.56201206551318217 1.6194955685841097 3.2221767079743673 0 0 0 0.89014277573261502 82 3138 34 2887 78 2592 59 2660 65 2580
6513 -0.56909844757985528 1.6495910877519404 3.1906666409927502 108 75 62 0.45435557330894033 82 2939 34 2888 78 2907 54 3054 43 2755 88 2664 68 2889 92 2452
6514 -0.61580351931654487 1.6623069498072134 3.159766898216033 119 89 79 0.51967092959111716 82 3140 34 2893 5 2970 78 2908 54 3055 43 3224 88 2842 68 3060 92 2584
6515 0.042095348107897917 2.3125002054979351 2.2716471287493607 216 201 163 0.19369153921900956 82 2971 34 2899 88 2688 68 2929
6516 0.032733420781086368 2.3221499779165504 2.212988573304203 57 36 28 0.2733229439737821 82 2979 34 2900 5 3006 78 2911
6517 0.11972146350055995 2.3337013543515184 2.1294678631448516 101 72 59 0.57371424530416448 82 2980 34 2901 5 2665 78 2906 54 3044 4 2492 43 2963 59 2376 88 2689 21 2361 65 1997
6518 -0.22246419609624696 2.133814813159054 2.006568877039919 212 198 164 1.6368751245140896 34 2914 88 2710 68 3078
6519 -1.1389832475374104 1.8865410823030451 2.8126762683456996 134 91 69 0.74702060784584834 82 2994 34 2935 59 2454
6520 -1.3330596524774503 1.9362393575785271 2.7072802969445457 143 96 73 0.76710719129040117 82 3015 34 2954 78 2975 54 3135 4 2924 43 3108 88 2732 68 2828 32 3156 11 2781 44 2201 92 2120 45 3103 86 2586 100 2751 39 2275 28 2313 31 2177 57 1589 84 1392
6521 -0.9441930576213754 1.9362654843850877 1.6122839242314002 251 211 65 0.3027546699680731 82 3041 34 2956 5 3055 78 2698 59 2447 21 2386
6523 -1.0673158476710407 1.9701467042182761 1.5475515341382602 250 209 64 0.47491675733395156 82 3048 34 2968 5 3070 78 2978 59 2467 88 2757 68 2831 21 2678
6524 -1.1701167584700616 2.6736346787423599 1.6643457990610027 92 101 101 1.7750097857873699 82 3320 34 3011 78 2421
6525 -1.8971601158597862 2.1411860609995457 2.4375019157716999 208 195 164 0.77223312408784395 82 3050 34 3012 5 3105 78 3033 54 3187 4 2974 43 3156 59 2799 88 2598 68 2474 32 2892 11 2790 21 2749 44 2154 92 2070 76 3240 25 3503 45 3082 86 2148 100 3104 39 2534 80 2449 28 2238 31 2116 57 2620 22 1856 14 938 22 1103 47 2971 65 2658 72 1396 52 412 1 2030 84 1144
6526 -1.7647717993134953 2.1201943513214427 1.9078479229828804 85 100 131 0.5238504986969984 82 3076 34 3018 54 3189
6527 -1.805967120479429 2.3914273871523868 2.0611878543735096 131 128 116 0.27037804189374398 82 3080 34 3034 5 3138 78 3053 54 3200 4 2982 59 2839 21 2806
6528 -1.727364955705428 2.5334949599440195 1.8398368070811402 68 75 73 0.38719213122110574 82 3088 34 3045 5 3153 78 3066 54 3201 4 2983 59 2854 21 2944
6529 -1.7277703314915691 2.531831782688398 1.8389981128643367 68 75 73 0.18845695902664633 82 3089 34 3046 5 3154 78 3067 59 2855
6530 -0.25483925782558664 0.70719919523528185 2.1465479671940884 148 132 44 0.65627064278743985 82 3104 34 3054 5 2882 78 3091 54 3224
6532 -0.67894937833328028 1.6856886810601974 3.1306955638109915 113 80 67 0.42056750557507666 82 3145 34 3111 54 3268 43 3225 88 2849 68 3054
6534 -0.54967273989787158 1.4955106785108503 1.8502441269706724 206 177 58 1.0353514767790728 82 3170 34 3115 5 3214
6535 -0.20900719917069488 2.1413059518071664 2.0749449923447041 7 7 8 0.23124467906242335 34 3122 68 2906
6536 -1.0225073158225342 1.8190450069463591 2.869538599681714 151 103 78 0.93657460319994212 82 3270 34 3130 78 3158 54 3288 4 3059 43 3253 88 2885 68 3187 32 3301 11 3234 44 2630 92 2566 45 3501 86 2985 47 3057
6537 -1.3262391630843955 1.8983064901405509 2.7284077582271364 32 13 7 0.80990130741808231 82 3184 34 3149 78 3180 54 3325 4 3084 43 3267 88 2730 43 3107 68 2829 32 3157 11 3074 44 2206 92 2121
6538 -0.63215683586666271 2.5507882556882437 1.8035402320238443 36 31 35 1.8028909581533623 82 3204 34 3155 5 3260 60 3373 26 3501 21 2895 59 2931 65 2763
6539 -0.58551631091016498 2.5570064959930949 1.7828365983544485 43 36 39 0.78514064066793721 82 3199 34 3156 5 3261 54 3302 4 3069 59 2923 44 2615 92 2366
6540 -1.4945036322427372 1.9150356897211083 2.7013542532575801 110 75 61 0.51814854885404094 53 3160 82 3189 34 3157 78 3188 54 3339 4 3097 43 3277 59 2937 88 2977 68 3015 92 2542
6541 -1.4513118578251933 1.9744380268526944 2.660247119854108 106 73 60 0.26716321123520398 82 3190 34 3158 88 2899
6542 -1.5648591684002429 1.9347461808793214 2.6637428553540303 109 76 62 0.59087789291790793 53 3163 82 3192 34 3163 4 3101 54 3446 43 3385 59 2942 88 2902 92 2538 65 2766 1 2158
6543 -0.71314561590019088 2.5959498705343256 1.7185287069190356 43 36 39 0.76152470305823239 53 3260 34 3165 5 3269 78 3187 54 3319 4 3082 43 3247 59 2936 68 3036 21 2902 44 2611 92 2535 65 2620
6544 -1.7443186573336715 2.0162636540643186 2.585918486305022 155 102 76 0.45336314260003635 82 3200 34 3171 5 3354 53 3297 78 3286 54 3451 4 3188 43 3391 59 2955 88 2990 68 3152
6545 -1.6875580861974673 1.8662912010468762 1.8033036870676309 92 100 128 0.83234054884775188 82 3065 34 3176 54 3368
6547 -0.32917229783684493 1.4913764631488626 2.2662075913825155 133 98 22 0.70548532473953884 82 3350 34 3216 5 3308 78 3243 54 3406
6548 -0.56151938240479493 1.3482352972036573 2.2483322009010385 116 90 38 1.2165618416030761 82 3349 34 3219 5 3397 78 3248 54 3410 4 3146
6549 -0.342781885875165 1.5342980784511699 1.8069200349585679 26 35 47 0.99983366031645837 82 3267 34 3225
6550 -1.3116490631845628 1.3458120200725077 1.6248797888179354 255 236 73 0.92153214560483199 82 3283 34 3246 5 3331 78 3272 54 3432 4 3169 43 3368 32 3365 11 3148 45 3439
6551 -1.2768847516259427 1.3652937994360446 1.5539159277203054 255 234 72 1.8922546508935665 82 3285 34 3248 5 3239 78 3170 54 3308 88 3004 68 3157
6552 -1.4285609151466239 1.8996467931364684 2.7356226351699995 111 77 62 0.50153923707147618 82 3273 34 3250 78 3280 5 3342 54 3440 4 3091 43 3379 88 2973 68 3175 44 2808
6553 -1.3730368049018167 1.3660875849446765 1.5920272250875969 255 234 73 0.9182769586091335 82 3291 34 3252 54 3434 43 3376 88 3009 68 3151 32 3367 11 3157 76 3598 25 3594 45 3165 100 3213 80 3043 5 3336 78 3276 4 3172
6554 -1.9265493302509911 2.3035734527835081 2.1944136959974672 108 110 102 0.91150860575427772 82 3319 34 3277 5 3288 64 3440 78 3303 54 3461 4 3201 43 3396 59 3067 32 3405 11 3288 21 2938 76 3732 25 3727 45 3579 100 3558 80 3517 80 3721 47 3091 65 2805
6555 -1.9253665377130833 2.3718313141080345 2.0802041995817793 181 172 146 0.37309263761628814 82 3325 34 3279 5 3436 54 3505 43 3399
6557 -1.4606413845937709 1.5347443342154292 1.3374636115575433 255 233 72 1.0536473661953623 82 3408 34 3353 5 3456 78 3377 54 3535 4 3247 43 3468 59 3089
6558 -0.53725828161364453 2.5094584018363695 1.9158670762387398 90 99 101 1.6687350796375364 34 3378 78 3394 54 3524 59 3118 88 3130 43 3456 44 2931 92 2804
6559 -1.2433099629899391 1.5306084248177723 1.4172365315499478 255 222 68 0.87092810287683919 82 3442 34 3385 5 3498
6560 -2.0522934162588609 2.0432486022141405 2.5402392715138169 0 0 0 1.8924897912268155 34 3392 78 3426 54 3567 4 3295 43 3510 59 3177 88 3142 68 3312 44 2946 92 2874
6561 -1.3009899572395116 2.1587790023864692 1.4782789186992829 46 60 85 1.3053150887066791 34 3399 78 3425 54 3575
6563 0.40167669913980814 2.33612343584758 2.1783935031446964 0 0 0 2.1243351853390524 82 3458 5 3515 21 3114
6564 -1.3977805401131718 2.7577423093008786 1.550519388502549 115 118 110 0.44484257897093765 82 3459 34 3402 59 3184 21 3123
6566 -2.0556376096457476 2.2718029219773324 2.2484781482109497 224 212 175 0.52784862949732148 64 3302 53 2870 34 3041 60 2303 82 2849 5 3136 78 3070 54 3207 4 2990 43 2615 59 2848 88 2309 68 2461 32 2895 21 2799 76 3241 25 2984 100 2658 47 2992 65 2696 1 2194
6567 -1.7801574259744934 2.508935052064905 1.8526708288283371 132 131 122 1.3536699443203841 7 3480 26 3340 60 3261 34 3281 95 3734 97 3463 17 3701 41 3697 36 3391 30 3469 90 3622 64 3544 82 3227 5 3437 78 3347 54 3462 43 3298 59 3131 21 3069 76 3649 25 3639
6568 -1.4745730132830897 2.8300992500093738 1.4220537292963402 140 136 120 1.1307607689813945 60 2137 53 2210 34 2465 95 2959 29 3306 97 3135 41 3292 51 2385 90 1651 64 2693 5 2872 78 2815 54 2567 4 2979 43 2135 59 2998 32 1374 21 2948
6569 -1.5227763807454868 2.4845305465299696 1.5092636828908907 121 126 119 2.4959687823642263 60 699 34 759
6570 -1.045116249663157 1.9487103183452312 1.5560249024578814 122 109 40 0.4660180173041974 82 1395 34 1266 5 1295 88 1371
6571 0.069467542412118402 1.8129027397716517 2.7504364530465337 230 214 177 1.6139911611238584 34 3407 88 3161 68 3332
6572 0.069467542412118402 1.8129027397716517 2.7504364530465337 230 214 177 1.6139911611238584 34 3408 88 3162 68 3333
6573 -0.38349492924387368 0.73508962002254008 2.0958612754378416 72 85 115 0.78637315447056944 34 842 5 15 78 21 21 13 65 19
6574 -0.37246390540450997 0.73150846217632981 2.0863986361998896 96 112 146 0.31957061929982578 34 42 5 16 78 20 59 700 47 10 1 19 2 12 62 13 37 2 38 18
6575 -0.14157636853395417 0.9283604251382348 2.1400825328391222 103 120 156 2.605152309158238 64 1540 78 28 54 67
6576 -0.078069931506507054 0.97984747572689312 1.701104381483961 174 187 217 0.12395771836969693 34 848 5 53 78 38 54 46 4 5
6578 -0.46666310047268234 1.5737269119594524 3.2300957400957828 199 182 175 0.10649127056309708 34 958 5 161 54 1058
6579 -0.44235803609332952 1.4511879872941098 2.3143380615130975 163 113 26 0.3236348737889565 34 247 53 252 5 166 78 242
6580 -0.50875853715260244 1.1657632677803069 1.3414329398867346 228 211 174 2.0769513008002072 87 1034 5 174
6581 0.52104699905635776 2.1490387985403365 2.2793069626345761 137 98 73 0.34302328358847289 53 560 5 185
6582 -0.31608102904791147 1.5331509166509318 2.1749821504923217 164 127 49 0.41477398433462459 34 248 5 202 88 2152 32 1842 11 1766
6583 0.25943777606144913 2.2512189060853043 2.3710969251692031 216 197 159 0.019250207177114696 82 1111 5 247
6584 -0.7438838079493475 1.7110016964900554 1.9147477140629336 147 121 48 0.13387453396099838 34 383 5 386 43 453
6587 -0.34264400716027799 2.4068564827445993 2.003519426524428 41 28 22 0.72007049759919095 64 648 5 457 21 958
6588 -1.3065074965006618 1.9353997617811585 2.7348371171234782 112 76 60 0.34650204583884586 34 471 5 460 68 238
6590 -1.8835705493142409 2.1682419420054049 2.4237349446527685 201 192 157 0.51602432632947004 82 657 5 680 43 1603 34 1419 21 589 64 613 44 73 68 31 65 606
6591 -1.8255180484968669 2.2202417017624403 2.3158854258504737 191 180 152 0.2564166337944444 34 702 5 701 21 592
6592 -1.0343534877627056 2.6606687158937579 1.5871083973406797 49 39 40 0.21878414501609073 82 761 5 709 78 680 54 642 59 574
6593 -2.0416106957874955 2.13304604277916 2.3993263336825477 59 44 43 0.34968706763884166 64 1313 5 712 59 638 21 605
6594 -1.8866598929819745 2.2658841541736163 2.2790073187231106 160 154 134 0.52767632731873293 34 712 5 714 78 761
6595 -1.1002115635849479 2.7025135180909836 1.5694050309769574 47 38 40 0.25430889286167163 34 698 5 725 54 670 4 634 21 601 47 1240
6596 -1.0611751977081023 2.6799754298388274 1.5627466514257824 52 37 32 0.065818643785091058 34 668 5 726 54 644
6597 -2.1517534887585339 2.1493578737539365 2.3721939415400541 86 60 51 0.29400481903540826 34 747 5 729 78 831 4 1360 59 1234
6598 -2.1518932590514921 2.1497250156909264 2.3735805014067166 86 60 51 0.23978170253879302 34 748 5 730 78 832 54 859 4 1361
6599 -2.1139747148430272 2.1674147479052319 2.3588886362943411 135 93 72 0.48899532746362939 60 225 5 733 21 618
6600 -1.6267084009866291 2.4773330254805961 1.9042798443270796 79 86 82 0.24551614364742416 82 794 59 1213 21 1185
6601 -1.6019376873955598 2.4680086674843644 1.9150409379678597 72 75 71 0.21939121749746468 34 718 5 740 78 748
6602 -1.2261884140588497 2.7539157067220463 1.5461960024320989 81 81 73 0.32941385556088987 34 724 5 765 78 732 43 741 59 628 32 421
6603 -1.8782045945772257 2.3928593536980052 2.0792629843503603 131 124 107 0.89696519666051433 34 1483 5 774 78 813 54 834 43 917 11 698 76 952
6604 -1.6908706146897621 2.4881231134848254 1.8634828022497631 82 91 87 0.33048025877438825 34 753 5 776
6605 -1.6690378138259749 2.7259257884984942 1.8563886179558571 95 102 98 1.9210008530239366 17 766 5 800
6607 -0.098872351523245916 0.95099430204353108 1.740016978058387 185 194 223 0.32236000357760536 34 1543 5 862 78 869 64 907 54 1596
6608 0.017531196515495097 0.97520406627264089 1.7718043860719275 139 126 39 0.19208652969781984 34 1537 5 863 54 2159 78 2068
6609 0.46504855237722126 1.8660834457434499 2.4471117289106035 227 213 180 0.30009543339267386 64 1057 78 106
6610 0.5467531723933009 2.1794889739874086 2.4643779871443701 225 208 171 0.15507263845967018 34 935 5 978 78 946 54 955 43 975
6611 -0.56169105616484061 1.6719153857619531 3.1513383009813087 34 20 16 0.058604057628203164 34 996 5 1000 78 1052
6612 0.42102784605738885 2.2746612334045624 2.291066084374326 96 68 57 0.20377656265476563 34 979 5 1022 78 984 21 213 59 186
6614 -0.62451769627611031 1.6161313789696805 2.0447663653948496 123 94 19 0.56188078741847891 82 364 5 1082 43 396
6615 -1.0019098418258139 1.8049733121237692 2.9247714521574935 34 14 8 0.19431226438759161 34 1746 5 1139 78 1762 54 1206 4 410 43 2484 59 292
6616 -0.3275049128155284 2.4194638258830778 1.9794666398704388 50 38 36 0.36167680902961608 34 1184 5 1210 78 1171 54 421 43 1237 4 1004 59 964 21 960 65 1048
6617 -0.26580390630679385 2.4672771529998463 1.9285122272431852 92 66 55 0.16077559608194797 53 1605 5 1212 88 475
6618 -0.3317327232503785 2.4350401435062414 1.9701951234082702 93 65 56 0.12421684942882671 53 817 5 1228 54 423 68 574 21 367
6619 -1.3726364320475273 1.9059089418605117 2.7288171038872959 34 18 14 0.25016791368227614 34 1236 5 1230 78 1242 54 1305 4 1143 43 715
6620 -1.2895115944490807 1.4382648323331788 1.4662347055140965 170 120 39 0.37019005113209424 34 500 82 1357 5 1237 54 534 4 385 43 1449 47 198
6622 -1.5884988182095749 1.4404816589809852 1.4759624458769844 175 143 40 0.11861723202779027 34 1311 5 1286 78 1890
6623 -1.5879026934352813 1.4425504766017543 1.4784970124352008 175 143 40 0.15882727998944199 34 1312 5 1287 54 1365
6625 -1.5983353246311673 1.4488029372307609 1.4846276577243664 255 231 71 0.26987102208383495 34 1331 5 1315 78 1296 54 2025
6626 -1.7522171721869249 2.0531190254779723 2.5400305963428567 138 93 70 0.47250400848647306 53 1313 5 1362 88 713 54 720 68 943 11 910 32 1007 76 1012 25 998
6627 -1.700184508786224 1.8390958448751356 1.9072119897483604 146 127 40 0.17447969910424685 34 657 5 1391 78 1397
6628 -1.8486178036336991 2.1347596038659509 2.4294162268948112 102 72 60 0.24333985902027414 34 673 5 1406 78 715 54 770 59 1192 4 724
6629 -1.8139413072803197 2.205099629476666 2.3341666282225715 155 148 129 0.32856308518288152 34 1954 5 1418 78 2001 54 2109 4 1323 59 1193 21 1170 47 704
6630 -1.9388037012604391 2.1584485881874733 2.4325991330516032 194 181 148 0.11894938866220965 64 1316 5 1428 43 1606
6631 -1.8657484220517162 2.1965778146947055 2.3633557319966263 101 101 88 0.086214851406783879 34 1423 5 1430 78 1438
6632 -1.8275165927899577 2.2352645122772268 2.3151047172658936 88 91 82 0.2465655693587871 34 1425 5 1431 78 1440 54 1512 4 1324
6633 -1.2647432587409717 2.3754479239559902 1.5977417204611124 8 14 26 1.5301508073688428 34 1394 5 1440 78 1386 54 1405 68 184
6635 -2.0644538032622681 2.1407811364780063 2.3893320196308299 52 38 32 0.33042602538672555 34 727 5 1450 54 839 43 931 88 826 64 1314
6636 -1.4221308458169601 2.2555636887469288 1.4881396918700522 107 118 146 0.3177296885503379 34 1434 5 1461 78 1425 54 1455 4 1846 59 570 47 1218
6637 -1.0730589997366597 2.6811594243029804 1.5609655916546412 111 77 62 0.23934407913968947 53 947 5 1464 54 645 4 605 43 680
6638 -2.1287255268071843 2.1601611790993078 2.3571576039197293 54 39 33 0.12182167626140572 34 1466 5 1468 78 1484 54 1552 59 1236
6640 -2.1378817045148888 2.1761120022345239 2.3513793278392159 144 99 75 0.13664477462206562 34 1473 5 1477 78 1486 54 1553
6641 -2.1377694230603761 2.1750644059286244 2.3512997113435201 144 99 75 0.3502446061200708 64 1349 5 1478
6642 -2.0927238674717885 2.2221563616810287 2.3223771347328541 97 101 94 0.11210270265885716 34 1475 82 1476 5 1481 78 1487 54 1554
6644 -1.9053654379620579 2.3982648752065243 2.0609896542203554 92 99 93 0.14381774887112353 34 1484 5 1497 78 1500 54 1551 4 1354 43 918
6645 -1.8561006275543206 2.4187578128224305 2.0165715423596167 149 143 126 0.63574611154483651 34 786 5 1498 54 1543
6646 -1.6311427651426584 2.5340362826962828 1.8318891831771267 77 81 78 0.49405331913063488 64 1465 5 1501 54 1519
6647 -1.4684509383133175 2.7196263192601253 1.5631112816335191 94 104 101 0.1289144465212449 34 793 5 1517 4 717
6648 -1.4960045116202423 2.7815903386417697 1.4847854604135704 98 108 104 0.19166123916316941 64 2202 5 1526 78 826 54 808
6649 -1.4217703901911114 2.8286505942933311 1.3641304831517185 62 49 46 0.34429189661925896 34 808 5 1527 78 829 54 812 78 1482 59 1275 4 719 21 1765
6651 0.23098604120745719 1.8215967856437842 3.005672631291854 136 115 84 0.060757584269401275 34 1563 5 1614
6652 -0.43867575759335897 1.433009821155953 2.3265247899447155 143 98 20 0.34554932430973911 34 965 5 1656 68 552
6653 0.46503783520122804 2.2368900020888174 2.2995651350241979 142 98 74 0.41003210549614333 34 957 5 1695 4 838 68 2080 44 1739 65 921
6654 -0.77332222293044306 1.7129076880279401 3.0992171696394393 158 139 134 0.078890925329674677 34 1702 5 1704
6655 -0.71236692326399931 1.5009844642278229 2.2372260398905492 114 78 33 0.21639413829762197 34 1705 64 1648 5 1706
6656 -0.47515750840035681 1.5839097571711742 1.7473707484269441 96 113 147 0.23708365322318553 34 1699 5 1710 78 1661 54 1740 59 1418
6658 0.064905078304218128 2.2974608595268249 2.2891499757366338 82 77 68 0.060444898740983799 34 1700 5 1739 78 1667
6659 0.064905078304218128 2.2974608595268249 2.2891499757366338 82 77 68 0.060444898740983799 34 1701 5 1740 78 1668
6660 -1.4067417854070925 1.4396571298239247 1.483037459177484 255 231 73 0.26142068030066817 34 1840 5 1852 78 1843
6661 -0.98337145636101742 1.93747718481839 1.594302875396338 127 108 34 0.019885413738658906 53 2131 5 1887
6662 -1.3918358625544824 1.5382767573876577 1.3369409876498246 133 115 35 0.10834139957326221 34 1302 5 1901 78 1267
6663 -1.0493924121688454 1.9581444772866745 1.5643965186932884 125 110 35 0.34320472302865979 34 1844 5 1905 78 1850 54 1936 43 1992
6664 -1.6214715708408776 2.0066235677164008 2.4950272694552917 27 32 42 1.3787973333649177 53 1315 5 1909 21 1636
6667 -1.4870479673165622 1.5516351230777194 1.3277312266734109 255 231 71 0.21457337881132846 34 1340 5 1943 54 2008
6668 -1.5415676672704068 1.95198799487177 1.712639759530667 124 102 26 0.2602821918890515 34 1384 5 1990 78 1382 54 1425 4 1229 59 1685 21 2061
6669 -1.8665625131277157 2.1667933380808324 2.421492467649716 119 117 107 0.40515059917530771 64 1317 5 1996 21 1167 65 1192
6670 -1.8456018263599643 2.1565033025833231 2.432509990695948 49 37 30 0.39294603108564902 34 1941 5 1997 78 1990 54 2108 43 1602
6671 -1.7940866079974196 2.2266414829026124 2.3404724275371223 202 188 153 0.29913518171346259 34 1955 5 2002 78 2002 54 2101 4 1900 59 1754 21 1697 65 2200
6672 -1.81107017603342 2.2609344967170006 2.2712020275583713 125 123 108 0.46635731043326634 34 1957 5 2013 54 2110 4 2397 59 2247 21 2124 47 2413 65 2233
6673 -1.8895700779261602 2.2610895224703031 2.288312907877684 92 96 89 0.38629793902156884 82 1445 5 2024 78 2011 54 1528 43 916 88 805 68 27
6674 -1.6172356040758853 2.4072774294820061 2.0609141609810622 70 65 53 0.42345200240905401 34 1963 5 2027 78 2007 54 2106 21 1708
6675 -2.0321859936176052 2.2032238927106298 2.356176087952055 109 108 98 0.31359675474579612 64 1971 5 2032
6676 -0.66766950062380159 19.525344723720387 23.430239027449666 97 101 93 1.6390017267523489 53 1097 5 2047
6677 -1.981614799410093 2.3281386334224492 2.1673594547079751 98 102 95 0.21665067529830456 64 2073 5 2051 59 1797 21 1735
6678 -1.3330101543154103 2.6766491437970759 1.6434717544740058 109 114 108 0.2592469805912832 34 1976 5 2055 78 1999 4 1884
6679 -1.9086727009146689 2.3828659057099255 2.0679969344932299 190 182 155 0.28840467872435771 82 2082 5 2058
6680 -0.191898985013222 0.85888167906405821 1.8595144041729552 186 196 223 0.40381366760169912 34 2038 5 2096 78 2072 54 2616 4 1939
6682 -0.39777012178694543 1.2302941636115332 1.7344387362932725 99 99 110 0.57883504300040789 34 2150 5 2151 78 2147 54 2255
6683 0.65522243128732582 2.0660044695155837 2.6591670447093461 122 117 98 0.13855103169396993 34 2078 5 2161
6684 0.65642675860405797 2.0674978426891424 2.6609833869416271 122 117 98 0.12249101065182971 34 2079 5 2162 78 2105
6685 -0.52619375245370048 1.6135058088046279 3.2082117198856843 171 131 112 0.38198199665839944 82 2669 5 2207 78 2217 54 2334 4 2138 59 853 88 2110 68 2255 21 1844 44 2020 92 1962 65 1978 1 1192 38 271
6686 -0.55094180258635295 1.6558338874239575 3.1753360963123107 151 133 127 0.37149265879425492 34 2590 5 2235 78 2593 54 2733 43 2756 88 2504 92 2232
6687 0.41059661963844324 2.2484043983147606 2.3102374444842062 106 73 62 0.32542643861476117 34 2177 5 2257 78 2181 54 2261 4 2028 59 1934 21 1860 65 943
6688 0.46741885800427907 2.230288483239423 2.3047597322982938 145 100 75 0.72810641501225859 34 2164 5 2259 54 2671 53 3050 43 2686 59 2341 21 1858 68 2425 44 2059 44 2540 65 1432 65 2330 1 1191
6689 0.33001707689253945 2.2883005944700905 2.2760589837800569 37 26 23 0.14571006565423675 34 2189 5 2275 54 2278
6690 0.32753663822956308 2.2845210448419504 2.2729869057171093 37 26 23 0.26642569199844307 34 2188 5 2276 54 2277 4 2060 59 1962
6691 -0.60145104218226653 1.6629385387798499 1.9781035537869269 153 125 44 0.035651526103264081 34 2244 5 2317 78 2254
6692 0.076028572824093199 2.3385983141345608 2.1773298403731838 103 71 60 0.65820914171105749 53 2564 5 2326 59 2027
6693 -0.030041374246214232 2.3394726168362423 2.1548833243101013 46 27 21 0.051591546315117309 34 2237 5 2341 78 2257
6696 -0.33875655606415395 2.400699985596809 2.0169207206315245 65 47 40 0.4068755236845038 82 2429 5 2373 21 1977
6697 -1.4505760330963413 1.9200674330678127 2.6971614149732495 43 28 23 0.15265106848196752 34 2314 5 2401 54 2476 4 2289 43 2550
6699 -1.5989092498861146 1.4381377540045139 1.5238936275341008 156 108 18 0.33742171021010509 34 2363 5 2424 78 2367 54 2869
6700 -1.5989092498861146 1.4381377540045139 1.5238936275341008 156 108 18 0.33742171021010509 34 2364 5 2425 78 2368 54 2870
6701 -1.4634161416142668 1.568677345383525 1.293403276950243 255 227 71 0.16636332123391731 34 2371 5 2452 78 2373 54 2009 4 1749 59 1613 21 1520
6702 -1.5021462097036804 1.9248288019895123 1.7503108261209173 127 99 24 0.81749333248089429 34 1922 5 2462 78 2386 54 2061 59 2494 21 2048 47 2649
6703 -1.8429762063322892 2.1692212635058055 2.4156938666395225 215 202 166 0.32771178543439161 34 2403 5 2484 78 2446 54 2556 4 2393 47 2407
6704 -1.8200232020475062 2.2508025616380398 2.2994698506345363 176 166 140 0.33164345755140245 34 2764 5 2495 78 2449 54 2925 4 2724 43 2610 59 2546 21 2123 47 2754 65 2476
6705 -2.0523620354005807 2.1683418891734125 2.3874294041628166 61 63 61 0.63444172242426233 64 2585 5 2508 78 2486 59 2274 21 2521
6706 -1.4650312338011482 2.2514058688309495 1.5372347332953589 69 76 90 0.42035991869344497 64 2131 5 2517 78 1983
6707 -1.1418009702240259 2.7106013622372127 1.553791781439767 105 74 60 1.3177976300923213 34 2424 5 2531 78 2422 54 2067 4 2339 59 1738 59 2532 88 2289 43 2834 68 2168 32 1937 21 2135 47 1907 65 2196 43 1479
6708 -1.2457477854547252 2.7757549372875436 1.4721676738765779 69 51 45 0.18301143461371 34 2446 5 2543 78 2459 54 2534
6709 -0.30926722953593899 0.65722162065249623 2.3883028918537756 252 229 96 0.58073448670799932 82 2603 5 2550 59 2294 21 2199 65 2299 1 1924 37 1835 62 1697 74 1676 38 1735
6710 -0.32597876545182181 0.65966630976330398 2.2119422682433298 122 103 28 0.305454584599059 34 2801 5 2551 78 2820 54 2949
6711 -0.15656282933400656 0.82065633044368758 1.9685016727424904 140 126 37 0.21911914749786798 34 2490 5 2554 78 2503 54 2610
6712 -0.36158311537824461 0.76154577212177355 2.0455314534255833 109 124 155 0.70116097153339141 34 2815 5 2556 78 2837 54 2961 21 2201
6713 0.19206493667422231 1.0988891269885621 1.7034449713037281 0 0 0 0.51137729038978497 34 2491 5 2558 78 2065 59 1815 1 601
6714 0.24122640199132922 1.2256413450662971 1.8189985321068143 0 0 0 1.82199114716372 34 2813 5 2559 59 2303 21 2593 1 1939
6715 0.57340998133295851 2.1870660443024859 2.4702578268393998 223 204 166 0.61505354421718905 34 2867 82 2944 5 2603 78 2553 54 2978 59 1912 21 1843
6716 0.35030544200106634 2.2145041922316797 2.3824846135376681 99 66 52 0.1874105427276346 34 2577 5 2626 78 2571
6717 -0.66045491670531054 1.5637498656014526 2.1107585244265885 146 119 39 0.24081567584945809 64 2782 5 2639 78 2616 54 2743 4 2499
6718 0.16755335275550137 2.2717518617630406 2.3327602050462937 215 197 159 0.22943372779041704 34 2602 5 2644 78 2590
6719 -1.0795808557253166 1.8410321899607842 2.8653312643211102 20 8 6 0.10813433221957809 53 2789 5 2689 65 2357
6720 -0.23836578202272143 2.4150105475248389 2.0411184255813644 115 76 58 0.34798061600783142 34 2641 82 3013 5 2719
6721 -1.3640287058082723 1.4918418673421583 1.4012303142051159 255 227 71 0.35938576805064698 34 2719 5 2775 78 2724 54 2848 4 2626 43 2841 59 2430 32 2818 21 2351
6722 -0.99653712607835288 1.9646739591081153 1.558677233695043 5 5 4 1.5467081130414204 34 2705 5 2778 88 2268 68 2515 21 2392
6723 -1.6016397816736385 1.437061754544658 1.4915278507197967 255 234 72 0.28297406006806475 34 2733 5 2781 78 2747 54 2871 4 2653
6724 -1.406444208132102 1.532703630923927 1.3345077924530842 164 134 37 0.51267733848943042 34 2724 5 2786 54 2863 4 2635 59 2443 21 2376
6725 -1.4071446991982728 1.5347797469872881 1.3380053121565296 164 134 37 0.35266210165787054 34 2725 5 2787 54 2864 43 2555
6726 -1.7062793058868566 2.0622620654647434 2.5165640634528028 106 74 61 0.33226530421797484 34 2737 82 2809 5 2797 78 2765 54 2895 4 2702 43 2870 59 2510 68 2130 32 2888 11 2784 44 1454 76 3236 25 3237 86 2167 47 2739
6727 -1.6839415154681756 1.7811004135848458 1.8684469315828789 255 229 71 0.34188733088937551 34 2992 5 2800 78 3014 54 3162 59 2755 21 2437
6728 -1.7786184919653512 2.0840840112785437 2.4899452503351234 106 73 61 0.19596313606708909 34 2753 82 2816 5 2802 88 2590 68 2486 44 2163 92 2083
6729 -1.5829396699243956 1.8702931306302255 1.7884906626041752 103 78 18 0.96094642907483241 34 2381 5 2805 78 2396
6730 -1.7739329476101107 2.2721085834607657 2.2690611343057245 76 79 74 0.50505743564040706 34 2414 5 2817 78 2789 54 2926 4 2723 59 2534 21 2753 65 2459 1 1764
6732 -1.8380833096763445 2.2697860569911499 2.249000415538839 173 164 141 0.49367989849796173 34 2771 5 2831 78 2794 54 2930 4 2731 59 2547 21 2507 47 2965 65 2477 1 1765
6733 -1.9894660801977713 2.2541713912449923 2.2854377584381971 226 213 177 0.25296625370795495 34 2782 82 2839 5 2842 78 2812 54 2936 4 2744 11 2495
6734 -1.6862243632612799 2.4220772017215717 1.9832526629178993 130 124 107 0.60209808335768777 34 3021 82 2545 5 2844 78 2795 54 3191 4 2977 59 2560 21 2530 47 2962 65 2676
6735 -1.8242504146215803 2.3780438153882311 2.0953481231132036 84 89 85 0.32193860553430625 34 2449 5 2848 78 2477 54 2571 4 2409
6736 -1.3400716774897603 2.6706101400291802 1.6514109360029401 111 115 109 0.31692953973061777 64 3069 5 2855 78 2784 54 2898 4 2708 59 2538 59 2819 21 2793 47 2715
6737 -1.8859855755233756 2.449242020234522 1.9982438851643891 118 119 108 1.2995319828696166 64 3037 5 2863 78 2817 4 2988 21 2946 47 3093
6738 -1.7738796005245734 2.4711211133467006 1.8855931077533508 82 89 86 0.46437005732370773 64 3045 5 2864 54 2582
6739 -1.6977771669314452 2.5792182206634804 1.8075416064510752 84 91 88 0.58305165759838951 82 2563 5 2866 78 2487 54 2574 4 2412 59 2583 21 2557
6740 -1.4368877230298289 2.8338598937849966 1.3762965594957282 77 57 50 0.37598874087922135 34 2462 5 2873 78 2488 54 2568 4 2726 59 2858
6741 -0.050209908289873574 0.75972458435566415 2.2846018564564794 152 132 37 0.25870916300498109 64 3091 78 2818
6742 -0.035456949416366887 0.78311776613459694 2.1393333971114821 147 129 38 0.33435386232261144 64 3097 5 2877
6743 0.028315399401273419 1.0837255154238861 1.7225252381652445 115 102 30 0.30703660607447175 34 2816 5 2895 78 2836 54 2954
6745 -0.56821744767089311 1.6478177670242249 2.034200870918347 154 123 40 0.55368663122435402 34 2905 5 2999 78 2915
6747 -1.2885909367970769 1.339897381615093 1.6589988952142005 255 229 74 0.18579411418935096 34 2948 5 3024 78 2952
6748 -1.4816190125259723 1.3898960528223614 1.5571318892386343 255 230 72 0.44570616520344941 34 2973 5 3047 78 2986 54 3137 4 2901 76 3160 25 3136 47 2575
6749 -1.4527428201126789 1.4123522765657608 1.5261203404906636 161 131 36 0.070880644097777404 34 2716 5 3049 54 2841
6751 -1.4286247848476554 1.5218059267292072 1.3735115960847699 255 229 73 0.11078291704415144 34 2978 5 3066 78 2996
6754 -1.709359047698807 1.8588937865627528 1.9568503337203362 18 18 23 0.53196391318460823 34 3174 5 3093 54 3367
6755 -1.9998757022801217 2.2507966183109018 2.2715241046629515 226 213 177 0.39023835709103433 34 3032 5 3124 78 3064
6757 -1.5993878376251365 2.4885128827267646 1.89962728861506 61 65 60 0.47324733554602288 34 3022 5 3139 78 3043 54 3183 4 2967 59 2814 65 2802
6758 -1.5915068462091977 2.5124168468564974 1.8809725765653369 108 110 101 0.13664069488267663 34 2779 5 3140 78 2796 54 2919
6759 -1.4687145292283352 2.7072458566389193 1.5882964455810697 125 128 122 0.14320377702962594 34 3048 64 3354 5 3159 78 3062 4 2970
6760 -0.29394718660117103 0.66701864251997012 2.1954872303160267 151 133 39 0.69661166570299726 34 3052 5 3167 78 3087 54 3222
6761 -0.29798534547567085 0.66378136273841981 2.1887726549501045 151 133 39 0.64192892550534653 34 3053 5 3168 78 3088 54 3223 4 3000 59 2872 21 2821
6762 -0.28552414398612724 0.72603133683080145 2.0699795492430222 126 106 28 1.0454804923046288 5 3172 78 3093 54 3396 88 2941
6763 -0.12098235549377598 0.83496284364013051 1.9155383801448207 150 132 42 0.54866726587114667 34 3057 5 3174 78 3096 54 3216
6764 0.001705596081392027 0.94447741069674518 1.7729468275098021 153 132 43 0.37164163506112252 34 3061 64 3370 5 3176 78 3085 54 3213
6765 0.006842001299522873 0.98634149309277175 1.7459655748076015 112 100 28 0.27561151923712829 34 3065 5 3182 78 3099 54 3221 4 2749
6766 0.006842001299522873 0.98634149309277175 1.7459655748076015 112 100 28 0.27561151923712829 34 3064 5 3183 78 3098 54 3220 4 2750
6768 -0.65786649355542814 1.3943920298240815 2.0058257849199306 187 160 55 0.27838813830017062 34 3108 5 3211 78 3133 54 3259
6769 -1.2367661623295207 1.403680814203792 1.4769600381996397 255 223 72 0.9357808592589415 34 3147 5 3240 78 2953
6770 -1.1947449158378782 1.4571194623883532 1.4498457156844167 255 229 74 0.37862602359921294 34 3150 5 3245 78 3171 54 3300 4 2877
6771 -1.4200537339259447 1.4816686546929749 1.4107665031524299 255 233 75 0.51362040163391975 34 3167 5 3257 78 3186 54 3337 4 3063
6773 -1.8562607527615356 2.1753517857247546 2.3975316903618875 223 211 176 0.35416170282597137 34 3179 5 3275 78 3214 54 3382 4 3122 59 2980 21 2750 65 2661 1 2032
6777 -0.58620685237102754 1.4601899950961921 1.8945144385662929 205 177 57 0.75958473901836954 34 3114 5 3315 78 3136 59 2632
6778 -1.1116606866830621 1.3782506765561962 1.5872420876187994 255 239 78 0.55140446323287962 34 3242 53 3323 5 3325 78 3266 54 3425
6779 -0.86160999643549607 2.5597035570200419 1.8191655669334257 81 91 93 0.045621335193037738 82 3307 5 3360
6781 -1.579842811292907 2.463060079024018 1.9624933053604752 110 110 97 0.79716238196310174 34 3270 5 3374 78 3298 54 3455 4 3194 59 3061 21 3043 65 2901
6782 -0.32128056007379402 0.75715728536665183 2.0361091488465894 115 132 167 0.51858351219956755 34 3286 5 3388 78 3312 54 3466
6783 -0.5966487262296124 1.4154030387063363 2.2667473783807157 134 90 19 1.8990236678729508 34 3304 5 3398 78 3251 54 3411
6784 -1.3002175238672156 1.8391523603784148 2.7711652013928636 109 77 64 0.29879985632257466 60 3382 5 3414
6785 -1.3932096715955851 1.4121631790814357 1.4913912177904547 255 232 81 0.93272858279480308 64 3494 5 3417 32 3369 76 3699
6786 -1.5003797202438309 1.5030492272701945 1.3992452285724151 255 236 74 0.14090331123918912 34 3325 5 3421 4 3221
6787 -1.6103871877681981 2.0020266888911147 1.7801482988554547 76 65 28 0.98541580781764027 34 3330 5 3424 78 3344 54 3500
6788 -0.99094442083455081 2.6894553973170021 1.5284570435989528 0 0 0 1.5954681724681612 53 3267 5 3432 59 3049 32 2768 11 2138 88 2280 21 2999 47 2912
6789 -0.48397627558084716 1.6122387659718429 1.7651581177456472 94 110 143 0.66226653985271788 34 3306 5 3447 78 3322
6790 -0.86538934037355875 1.5244779498072751 1.8365384556777826 28 25 22 0.37775734555722668 5 3448 78 3369
6791 -0.30786349241942373 1.0030489394888598 2.0966648579828902 148 129 45 1.0257219013640912 5 3468 78 3352
6792 -0.63379063867944796 1.2707144069720171 2.2475502554307436 241 227 194 1.2513003750753791 34 3367 5 3471 78 3359 54 3518
6795 -1.5653051039551849 1.9181302128831517 1.7618131890342423 215 176 47 0.15293525235346103 34 3357 5 3484 78 3380 54 3538
6796 -1.5653051039551849 1.9181302128831517 1.7618131890342423 215 176 47 0.15293525235346103 34 3358 5 3485 78 3381 54 3539
6797 -1.3025777741814932 2.4114808953160685 1.5403523908604302 5 6 7 1.3100488385193241 34 3373 5 3493 78 3382
6798 -1.1935883287185221 1.3473829435421312 1.7171227578865746 255 226 72 2.5217238738292016 34 3398 5 3503 78 3423
6799 -0.94318143049480352 2.6382938400238327 1.6685668419387887 0 0 0 1.7177437408559184 7 3821 55 3927
6800 -0.23571476197966104 0.6889508578996989 2.2477868159737251 146 127 36 2.1049276160284678 64 3660 5 3506 78 3417 59 3170
6801 -0.48664047406360172 2.4729740502751825 1.9662033718373149 51 40 36 0.72709557152286408 87 2327 94 2448 40 2864 87 2902 24 2401 93 2383 5 1247 53 814 82 544 21 382 18 1478 70 1323
6802 -1.4946135490016386 2.7845989325737408 1.4884428397580403 98 105 100 0.72403803279974421 29 2588 55 1523 64 2201 5 1525 53 959 82 852 78 825 54 807 4 733 59 1269 21 1760 33 2601 65 1795
6803 -1.0625670171590897 1.4817534882912879 1.4860870126274612 239 184 47 1.2339780820129718 7 1724 94 983 40 1770 87 1788 24 2055 26 2431 60 1831 53 2059 15 991 93 991 82 1332 5 1192 55 204 26 1094 78 445 43 558 88 1366 68 1013 44 857 92 844
6804 -0.36372029031164071 0.76612897855581763 2.2758652993339648 122 96 22 0.45742695403946243 34 841 5 848 78 43
6805 -1.3467311864564961 1.3959770097395952 1.48589460122818 251 214 67 0.52474495324463566 82 3461 78 3432
6807 -0.35439895825179241 0.79081854907667348 2.0527711466853855 99 103 124 0.24608948251344134 34 47 78 48 54 83
6808 -0.17123833867898763 0.96177615193068622 1.7852465277440399 92 102 126 0.18187787813499109 5 49 78 61 54 908
6809 -0.17676750028503407 0.95768582188858209 1.7790550236021261 92 102 126 0.31544699285943895 5 50 82 107 78 62 54 909
6810 -0.16270329049058585 0.99485828889064598 1.7522830907835234 69 79 106 0.43176726828175527 5 874 78 66 54 76 4 788
6811 0.050665670066717419 1.4860560564180592 3.4537021477384062 161 121 106 0.059378020097251127 34 856 78 86
6812 -0.38039624589769622 1.1955726580349917 1.7817402767909121 121 135 171 0.17329997071300327 82 210 78 130 54 146
6813 -0.034248723366255375 1.6594306410388164 3.2684700878784239 215 198 160 0.14164140875235598 34 140 78 142 43 194 32 432
6814 -0.20421338865801739 1.656331771145324 3.2468216709097928 209 193 161 0.099719029074144649 34 185 78 203 59 165
